ply
format ascii 1.0
element vertex 318
property float x
property float y
property float z
property float nx
property float ny
property float nz
property uchar diffuse_red
property uchar diffuse_green
property uchar diffuse_blue
property float quality
end_header
1.1961394548416138 1.2266150712966919 -5.6518697738647461 -0.96446990966796875 0.040632355958223343 0.26104915142059326 67 33 16 0.84149461984634399
1.196045994758606 1.2170644998550415 -5.519686222076416 -0.88032978773117065 0.24622394144535065 0.40545409917831421 87 51 40 0.93834853172302246
1.2061582803726196 1.1829067468643188 -5.3052587509155273 -0.94366419315338135 -0.055555038154125214 0.32620739936828613 147 101 118 0.81628888845443726
1.2099450826644897 1.1538009643554688 -5.1725564002990723 -0.70393234491348267 0.59959745407104492 0.38073888421058655 149 104 119 0.97076493501663208
1.3079408407211304 1.1787521839141846 -5.2003064155578613 0.31384825706481934 0.3569490909576416 0.87982189655303955 159 108 119 0.9729425311088562
1.3091397285461426 1.1794167757034302 -5.2014384269714355 0.27620083093643188 0.37558776140213013 0.88467341661453247 160 109 120 0.97255510091781616
1.3440567255020142 1.1792902946472168 -5.208953857421875 0.055275693535804749 0.46262377500534058 0.8848298192024231 183 129 140 0.97334939241409302
1.3923478126525879 1.2038949728012085 -5.2331175804138184 0.20636667311191559 0.54874438047409058 0.81011873483657837 166 117 125 0.96434694528579712
1.6011260747909546 1.253074049949646 -5.351353645324707 0.1436409056186676 0.35224401950836182 0.9248197078704834 114 66 67 0.93679547309875488
1.6576149463653564 1.2440023422241211 -5.3649682998657227 0.27774408459663391 0.42752733826637268 0.86027812957763672 145 97 99 0.97238636016845703
2.0245280265808105 1.3851076364517212 -5.8807029724121094 -0.97265779972076416 -0.15698131918907166 0.17115390300750732 186 151 92 0.91856300830841064
2.0386967658996582 1.3632429838180542 -5.8389663696289062 -0.91132283210754395 -0.24486047029495239 0.33095932006835938 199 171 99 0.93265551328659058
2.0532951354980469 1.3766255378723145 -5.8162984848022461 -0.80791544914245605 -0.26829254627227783 0.52468246221542358 202 174 88 0.96404808759689331
2.0604329109191895 1.3828815221786499 -5.7956147193908691 -0.92029762268066406 -0.1940644234418869 0.33969271183013916 203 174 77 0.97288888692855835
2.0798382759094238 1.3610391616821289 -5.799497127532959 -0.83851122856140137 -0.35631939768791199 0.41223224997520447 207 176 60 0.97006762027740479
2.0872087478637695 1.3651484251022339 -5.7762274742126465 -0.9245072603225708 -0.19940339028835297 0.3248455822467804 208 177 57 0.96473807096481323
2.0926251411437988 1.3832303285598755 -5.7650814056396484 -0.9235801100730896 -0.11531314998865128 0.36565384268760681 208 177 56 0.95981723070144653
2.1099274158477783 1.3630245923995972 -5.7300987243652344 -0.65835404396057129 -0.7030632495880127 0.26883473992347717 202 170 52 0.89153921604156494
2.1372108459472656 1.3599988222122192 -5.7166967391967773 -0.98457610607147217 -0.01420293003320694 0.17437933385372162 211 178 52 0.90042191743850708
2.1268880367279053 1.3811322450637817 -5.7135615348815918 -0.94892257452011108 -0.27077427506446838 0.16194775700569153 210 174 53 0.91202318668365479
2.1566908359527588 1.3632841110229492 -5.6321392059326172 -0.95560044050216675 -0.020127288997173309 0.29397720098495483 209 165 48 0.88849788904190063
2.1655356884002686 1.3506793975830078 -5.5736398696899414 -0.57168328762054443 -0.80015456676483154 0.18146832287311554 204 162 49 0.91014659404754639
2.2074418067932129 1.3247287273406982 -5.4552140235900879 -0.98168247938156128 -0.038059007376432419 0.18668442964553833 204 169 87 0.87486898899078369
2.2260220050811768 1.3437390327453613 -5.3773412704467773 -0.98173683881759644 -0.16165664792060852 0.10029920190572739 207 163 64 0.93810427188873291
2.2399609088897705 1.3173415660858154 -5.3434591293334961 -0.95770370960235596 0.073202826082706451 0.27828919887542725 209 173 61 0.93746680021286011
-0.87329554557800293 0.77928400039672852 -4.5670537948608398 -0.51007336378097534 0.60265862941741943 0.61370003223419189 122 87 101 0.99330323934555054
-0.83997434377670288 0.77581250667572021 -4.5406179428100586 -0.41305744647979736 0.6655084490776062 0.62167692184448242 168 125 142 0.9935874342918396
-0.80728244781494141 0.79283314943313599 -4.5387463569641113 -0.21088360249996185 0.72088849544525146 0.66018784046173096 171 129 147 0.99478298425674438
-0.77051442861557007 0.789561927318573 -4.5339822769165039 -0.31124535202980042 0.63179695606231689 0.7099006175994873 194 144 160 0.99356603622436523
-0.74406439065933228 0.78936702013015747 -4.5246305465698242 -0.25765964388847351 0.45622819662094116 0.85174369812011719 195 144 159 0.98907983303070068
-0.7184177041053772 0.78973543643951416 -4.5210323333740234 -0.21134254336357117 0.42314010858535767 0.88107138872146606 212 159 173 0.98415911197662354
-0.6914520263671875 0.80641645193099976 -4.5181412696838379 -0.2639232873916626 0.57509380578994751 0.77434587478637695 206 156 170 0.99394023418426514
-0.6647493839263916 0.80646508932113647 -4.5114479064941406 -0.25752079486846924 0.48328867554664612 0.83672875165939331 209 157 172 0.99437862634658813
-0.63951164484024048 0.80636972188949585 -4.5041637420654297 -0.15308777987957001 0.38720390200614929 0.90919595956802368 214 161 176 0.99102973937988281
-0.59495687484741211 0.80307877063751221 -4.4943175315856934 0.0069396384060382843 0.22288578748703003 0.9748198390007019 216 162 176 0.98985826969146729
-0.57109725475311279 0.80299210548400879 -4.4930648803710938 0.065819494426250458 0.28448900580406189 0.95641720294952393 209 155 169 0.98887979984283447
-0.5440366268157959 0.81174039840698242 -4.5173358917236328 0.22627885639667511 0.62547194957733154 0.74671453237533569 194 143 157 0.99210560321807861
-0.51687371730804443 0.81518954038619995 -4.5182418823242188 0.34333980083465576 0.62000942230224609 0.7054828405380249 178 132 148 0.9962955117225647
-0.49637442827224731 0.81806176900863647 -4.517064094543457 0.38486534357070923 0.56467020511627197 0.73008644580841064 163 122 139 0.9965175986289978
-0.45816978812217712 0.83924400806427002 -4.5708661079406738 0.33925575017929077 0.68902873992919922 0.64042544364929199 58 29 34 0.99428629875183105
-0.43312150239944458 0.83767145872116089 -4.5849099159240723 0.50851362943649292 0.57758283615112305 0.63860166072845459 46 21 24 0.99145758152008057
-0.40315476059913635 0.85814011096954346 -4.5998630523681641 -0.42528054118156433 0.57697176933288574 0.69730919599533081 39 15 15 0.93179142475128174
-0.38155630230903625 0.85921716690063477 -4.6129660606384277 -0.55852878093719482 0.45514392852783203 0.69346195459365845 35 10 10 0.85507166385650635
-0.38155630230903625 0.85921716690063477 -4.6129660606384277 -0.55852878093719482 0.45514392852783203 0.69346195459365845 35 10 10 0.85507166385650635
-0.38155630230903625 0.85921716690063477 -4.6129660606384277 -0.55852878093719482 0.45514392852783203 0.69346195459365845 42 14 14 0.85507166385650635
-0.10713601857423782 1.0922956466674805 -6.0496983528137207 -0.43454638123512268 0.69799989461898804 0.56917965412139893 9 6 6 0.90786802768707275
-0.068510197103023529 1.0661154985427856 -5.7787003517150879 -0.70240497589111328 0.4852464497089386 0.52073317766189575 21 10 9 0.97841137647628784
-0.070352628827095032 1.0583683252334595 -5.767214298248291 -0.73663985729217529 0.44360092282295227 0.51047009229660034 19 9 9 0.96761596202850342
-0.034806281328201294 1.0697977542877197 -5.729799747467041 -0.73343878984451294 0.45224186778068542 0.50748872756958008 41 8 8 0.96473604440689087
0.017078626900911331 1.055728554725647 -5.6804938316345215 -0.83770042657852173 -0.047051265835762024 0.54409927129745483 103 5 7 0.95921099185943604
0.046364277601242065 1.0524570941925049 -5.6401567459106445 -0.78460985422134399 -0.028617799282073975 0.61932897567749023 129 10 15 0.96367019414901733
0.096806183457374573 1.0546764135360718 -5.5819435119628906 -0.82426553964614868 -0.083165921270847321 0.56006228923797607 142 12 19 0.9789770245552063
0.14043526351451874 1.0561624765396118 -5.5286874771118164 -0.66721081733703613 -0.062161773443222046 0.74227052927017212 156 16 25 0.98104268312454224
0.17277686297893524 1.0552953481674194 -5.5048599243164062 -0.63886725902557373 0.097738713026046753 0.76308304071426392 168 20 31 0.98351359367370605
0.23648907244205475 1.050748348236084 -5.4633755683898926 -0.22688698768615723 0.060840558260679245 0.97201883792877197 170 22 34 0.9804036021232605
0.25427976250648499 1.058720588684082 -5.4571900367736816 -0.14400160312652588 0.28237798810005188 0.94843357801437378 161 20 29 0.97806304693222046
0.28496012091636658 1.0567430257797241 -5.4423670768737793 -0.15192754566669464 0.45726758241653442 0.87625592947006226 151 16 24 0.97874706983566284
0.31925481557846069 1.0568205118179321 -5.4368195533752441 -0.15205265581607819 0.45762524008750916 0.87604743242263794 151 16 25 0.98136866092681885
0.35360649228096008 1.0570461750030518 -5.4320173263549805 -0.10053083300590515 0.53002703189849854 0.84200048446655273 156 17 27 0.97556066513061523
0.37594145536422729 1.0608412027359009 -5.4317746162414551 -0.079039096832275391 0.62163108587265015 0.77931231260299683 162 18 30 0.96289443969726562
0.39840123057365417 1.0866777896881104 -5.4392566680908203 -0.46862092614173889 0.42771142721176147 0.77295362949371338 169 21 34 0.97379189729690552
0.40733447670936584 1.0614519119262695 -5.4335880279541016 -0.053228314965963364 0.20173566043376923 0.97799253463745117 171 22 34 0.94760245084762573
0.43213838338851929 1.0683170557022095 -5.4228806495666504 -0.17064286768436432 0.10267764329910278 0.97996848821640015 176 24 37 0.98420435190200806
0.46762165427207947 1.0899462699890137 -5.4568285942077637 -0.20295330882072449 0.54319244623184204 0.81470966339111328 159 20 30 0.97974264621734619
0.51754134893417358 1.0966248512268066 -5.4691052436828613 0.30646806955337524 0.61510998010635376 0.72644132375717163 116 10 15 0.98557090759277344
0.50615835189819336 1.090569019317627 -5.4604697227478027 0.46826282143592834 0.47721907496452332 0.74363422393798828 139 17 25 0.98209095001220703
0.50583839416503906 1.0880006551742554 -5.4488801956176758 0.24980336427688599 0.36598926782608032 0.89646536111831665 143 18 27 0.98007869720458984
0.5212891697883606 1.0975638628005981 -5.471097469329834 0.28787103295326233 0.62876075506210327 0.72235041856765747 111 9 13 0.9827691912651062
0.64575886726379395 1.1467419862747192 -5.651364803314209 0.34354963898658752 0.58043718338012695 0.73828601837158203 77 2 2 0.9139864444732666
0.58542764186859131 1.0968419313430786 -5.3956995010375977 0.24959605932235718 -0.8412889838218689 0.4795149564743042 73 4 5 0.87386822700500488
0.73523294925689697 1.1384856700897217 -5.6766819953918457 0.12486553192138672 0.70372390747070312 0.69941490888595581 89 1 2 0.92699527740478516
0.91521990299224854 1.2230378389358521 -5.9067955017089844 0.11998414993286133 0.18523603677749634 0.97534173727035522 36 9 8 0.98317629098892212
0.95694833993911743 1.2083452939987183 -5.9068388938903809 -0.13440960645675659 0.49584615230560303 0.85794562101364136 39 9 7 0.98672086000442505
1.0004664659500122 1.2239177227020264 -5.9173760414123535 0.075499087572097778 0.65045726299285889 0.75578117370605469 40 8 8 0.97431421279907227
1.0947511196136475 1.2345479726791382 -5.9213433265686035 -0.55197650194168091 -0.13181033730506897 0.8233758807182312 122 12 15 0.96289730072021484
1.1345183849334717 1.2280111312866211 -5.8980889320373535 -0.45091965794563293 0.03529367595911026 0.89186644554138184 117 12 14 0.97636121511459351
1.1390724182128906 1.2364792823791504 -5.88372802734375 -0.54470765590667725 -0.29389536380767822 0.78544199466705322 95 10 9 0.97059792280197144
1.1722579002380371 1.2358551025390625 -5.8046212196350098 -0.745441734790802 -0.61325675249099731 0.26121380925178528 54 25 15 0.97250121831893921
1.2000809907913208 1.2227946519851685 -5.7720093727111816 -0.59100723266601562 -0.69999080896377563 0.40090304613113403 52 29 17 0.81069159507751465
1.2038768529891968 1.2098915576934814 -5.6620693206787109 -0.96790659427642822 -0.014729676768183708 0.25087803602218628 68 32 16 0.87526786327362061
1.2038768529891968 1.2098915576934814 -5.6620693206787109 -0.96790659427642822 -0.014729676768183708 0.25087803602218628 68 32 16 0.87526786327362061
1.2038768529891968 1.2098915576934814 -5.6620693206787109 -0.96790659427642822 -0.014729676768183708 0.25087803602218628 68 32 16 0.87526786327362061
1.1946603059768677 1.1860634088516235 -5.4303421974182129 -0.94500309228897095 -0.060389116406440735 0.32143759727478027 127 83 80 0.91918498277664185
1.1851966381072998 1.1836313009262085 -5.4137616157531738 -0.86075425148010254 0.29167994856834412 0.41716301441192627 116 73 68 0.91858100891113281
1.1853301525115967 1.1546014547348022 -5.3512253761291504 -0.38350707292556763 0.70261627435684204 0.59937691688537598 149 100 103 0.92562121152877808
1.1895027160644531 1.1534150838851929 -5.3078293800354004 -0.94003522396087646 -0.14740674197673798 0.30757933855056763 165 114 126 0.90869420766830444
1.1892454624176025 1.1571040153503418 -5.3251056671142578 -0.94623595476150513 -0.063023559749126434 0.31727814674377441 165 114 125 0.91608268022537231
1.177001953125 1.1379505395889282 -5.1743679046630859 -0.93541663885116577 0.23377873003482819 0.2652226984500885 163 113 128 0.90921056270599365
1.2502790689468384 1.1462831497192383 -5.1539311408996582 0.38847476243972778 -0.43015190958976746 0.81489676237106323 132 89 99 0.95827710628509521
1.2855888605117798 1.1428531408309937 -5.1595854759216309 0.44474852085113525 -0.33537518978118896 0.83049511909484863 118 71 79 0.9718940258026123
1.3295736312866211 1.1442850828170776 -5.1880841255187988 0.36485150456428528 0.41620209813117981 0.83286207914352417 152 101 111 0.97013270854949951
1.3294694423675537 1.1458797454833984 -5.1858119964599609 0.35197311639785767 0.36518275737762451 0.86183321475982666 156 105 115 0.97155702114105225
1.3928055763244629 1.1834077835083008 -5.230736255645752 0.33377286791801453 0.32880422472953796 0.88344967365264893 173 123 133 0.95573872327804565
1.394420862197876 1.1649516820907593 -5.2123217582702637 0.10807046294212341 0.32668370008468628 0.9389348030090332 176 124 134 0.95038032531738281
1.4045873880386353 1.1602479219436646 -5.1934680938720703 0.25198855996131897 0.5267871618270874 0.81178629398345947 167 116 125 0.97710514068603516
1.4341773986816406 1.1797277927398682 -5.2305989265441895 0.18381689488887787 0.58596926927566528 0.78920924663543701 147 98 101 0.94435977935791016
1.4703675508499146 1.1842079162597656 -5.2488265037536621 0.27929237484931946 0.49677172303199768 0.82171380519866943 124 72 73 0.93728524446487427
1.549399733543396 1.2159901857376099 -5.308342456817627 0.1118462085723877 0.45570129156112671 0.88307797908782959 165 112 117 0.93899136781692505
1.5977115631103516 1.2162845134735107 -5.3261508941650391 0.26474082469940186 0.49640235304832458 0.82673871517181396 131 82 81 0.94628173112869263
1.6390684843063354 1.2065140008926392 -5.3374042510986328 0.22180511057376862 0.28804880380630493 0.93157410621643066 110 63 57 0.94845467805862427
2.0345084667205811 1.3473880290985107 -5.8902816772460938 -0.97765868902206421 -0.10806795209646225 0.18029062449932098 193 161 104 0.88005185127258301
2.0606424808502197 1.3357647657394409 -5.8031625747680664 -0.9151960015296936 0.2592492401599884 0.30855447053909302 208 176 62 0.95130693912506104
2.0675725936889648 1.3360495567321777 -5.7896823883056641 -0.9243360161781311 -0.17761069536209106 0.33772382140159607 209 177 60 0.94668573141098022
2.1100897789001465 1.3411010503768921 -5.7612709999084473 -0.68512272834777832 -0.16699977219104767 0.70902597904205322 211 179 54 0.81014013290405273
2.1473388671875 1.3339800834655762 -5.6705379486083984 -0.90105348825454712 -0.11493830382823944 0.41820055246353149 212 181 51 0.87826347351074219
2.1721160411834717 1.3192819356918335 -5.6552448272705078 -0.97148227691650391 -0.11948568373918533 0.20480555295944214 213 181 53 0.88643741607666016
2.1747963428497314 1.3125927448272705 -5.5243253707885742 -0.90176135301589966 -0.14698928594589233 0.40647333860397339 212 169 51 0.95469337701797485
2.2023663520812988 1.3007488250732422 -5.461794376373291 -0.94379127025604248 -0.041974470019340515 0.32786601781845093 208 168 77 0.87834125757217407
2.2182309627532959 1.3187476396560669 -5.411130428314209 -0.91502583026885986 -0.23040816187858582 0.33111879229545593 209 179 90 0.92233449220657349
2.2271931171417236 1.296058177947998 -5.3781414031982422 -0.96438020467758179 0.12327726930379868 0.23403751850128174 208 177 60 0.9104616641998291
-0.96000534296035767 0.75369185209274292 -4.5978846549987793 -0.11360644549131393 -0.85060667991638184 0.51338273286819458 95 78 88 0.82277822494506836
-0.90627968311309814 0.75158995389938354 -4.5683326721191406 -0.55417138338088989 0.5680081844329834 0.60849058628082275 112 79 95 0.96927797794342041
-0.85073155164718628 0.7594219446182251 -4.5397849082946777 -0.48954963684082031 0.62637966871261597 0.60662144422531128 185 139 156 0.99510705471038818
-0.80789434909820557 0.77032870054244995 -4.5374569892883301 -0.22405791282653809 0.71146142482757568 0.66604846715927124 198 148 163 0.99402624368667603
-0.78388237953186035 0.76852071285247803 -4.5231552124023438 -0.049043938517570496 0.29850873351097107 0.95314586162567139 212 159 173 0.98703080415725708
-0.76044762134552002 0.76819032430648804 -4.5189476013183594 -0.074538446962833405 0.27309906482696533 0.95909380912780762 216 160 174 0.96856707334518433
-0.73351573944091797 0.76991677284240723 -4.5210990905761719 0.49218976497650146 0.46356353163719177 0.7367890477180481 219 162 175 0.94601720571517944
-0.68186122179031372 0.78518706560134888 -4.5061845779418945 -0.30407625436782837 -0.22196200489997864 0.92642885446548462 221 164 177 0.95289903879165649
-0.65347307920455933 0.78622913360595703 -4.4988861083984375 -0.27671334147453308 -0.18028528988361359 0.94388926029205322 223 165 179 0.94478577375411987
-0.62936818599700928 0.78644013404846191 -4.502833366394043 -0.093986779451370239 0.29856577515602112 0.94974994659423828 224 167 180 0.93990308046340942
-0.60730421543121338 0.78392285108566284 -4.4993257522583008 0.018130009993910789 0.10968315601348877 0.9938012957572937 225 168 181 0.90977227687835693
-0.58354353904724121 0.78365439176559448 -4.4983811378479004 0.019000653177499771 0.18654519319534302 0.98226261138916016 221 161 175 0.93715512752532959
-0.55980205535888672 0.78363227844238281 -4.4991321563720703 0.0098198074847459793 0.30122542381286621 0.953502357006073 218 158 171 0.96880203485488892
-0.54444485902786255 0.78661251068115234 -4.5014200210571289 0.079684637486934662 0.15902039408683777 0.9840543270111084 218 160 173 0.9774056077003479
-0.48840343952178955 0.79550689458847046 -4.5123786926269531 0.33405619859695435 0.63098245859146118 0.70019108057022095 195 148 164 0.99550098180770874
-0.47187754511833191 0.81191813945770264 -4.5383734703063965 0.40453559160232544 0.65818405151367188 0.63493669033050537 164 123 140 0.99431782960891724
-0.37675204873085022 0.83380365371704102 -4.5932974815368652 -0.56732708215713501 0.44794890284538269 0.69100064039230347 39 16 16 0.9502219557762146
-0.14430886507034302 1.0836856365203857 -6.1379518508911133 -0.60435777902603149 0.5878487229347229 0.53775960206985474 73 52 54 0.79872334003448486
-0.0013537268387153745 1.0304993391036987 -5.6808347702026367 -0.79255545139312744 -0.026787668466567993 0.6092110276222229 84 5 7 0.97845274209976196
0.06836458295583725 1.0319817066192627 -5.6004753112792969 -0.69337320327758789 -0.26337927579879761 0.67071974277496338 147 12 19 0.95611363649368286
0.086156271398067474 1.0207533836364746 -5.5980587005615234 -0.72422599792480469 -0.28129610419273376 0.62957864999771118 164 17 28 0.96908968687057495
0.11987757682800293 1.0362741947174072 -5.5570554733276367 -0.73718571662902832 -0.060426220297813416 0.67298269271850586 170 20 31 0.97545140981674194
0.15071138739585876 1.037757396697998 -5.5277194976806641 -0.63502919673919678 -0.58868873119354248 0.50018352270126343 172 19 30 0.97816389799118042
0.17019626498222351 1.0176585912704468 -5.502957820892334 -0.76298332214355469 0.053590543568134308 0.64419287443161011 180 23 37 0.97855520248413086
0.19224521517753601 1.035481333732605 -5.4816417694091797 -0.67860466241836548 -0.24768014252185822 0.69148409366607666 181 24 38 0.96942490339279175
0.19667643308639526 1.0325405597686768 -5.4769372940063477 -0.68041521310806274 -0.20537891983985901 0.70345908403396606 180 23 38 0.96641385555267334
0.21370066702365875 1.012886643409729 -5.4651026725769043 -0.67634576559066772 0.1686815470457077 0.71700972318649292 160 16 26 0.97128039598464966
0.25035148859024048 1.0229160785675049 -5.4442305564880371 -0.39905145764350891 0.33358579874038696 0.85409510135650635 171 21 32 0.96816563606262207
0.26849809288978577 1.0322870016098022 -5.4440803527832031 -0.016426000744104385 0.29916268587112427 0.95406073331832886 171 22 34 0.98164206743240356
0.29980650544166565 1.0313994884490967 -5.4335160255432129 0.052326139062643051 0.44060626626014709 0.89617413282394409 169 21 33 0.98522675037384033
0.33414351940155029 1.0310986042022705 -5.4260711669921875 -0.0017386022955179214 0.1982199102640152 0.98015594482421875 172 22 35 0.98618996143341064
0.33499422669410706 1.0296419858932495 -5.4263062477111816 -0.021543724462389946 0.098958313465118408 0.9948582649230957 173 22 35 0.9861757755279541
0.364492267370224 1.0294547080993652 -5.4173588752746582 0.050739314407110214 0.48127678036689758 0.87509894371032715 178 24 40 0.98054248094558716
0.48365497589111328 1.052217960357666 -5.4341568946838379 -0.47447779774665833 0.42707797884941101 0.76972407102584839 204 97 118 0.96862971782684326
0.48963144421577454 1.0585323572158813 -5.4274296760559082 -0.092053577303886414 0.14383465051651001 0.98531097173690796 194 74 95 0.97403353452682495
0.52039772272109985 1.0569697618484497 -5.4221878051757812 0.086236491799354553 0.18348386883735657 0.97923284769058228 172 26 41 0.98284566402435303
0.55830144882202148 1.0696357488632202 -5.4646635055541992 0.32230100035667419 0.60637450218200684 0.72693330049514771 150 18 26 0.97942513227462769
0.64688318967819214 1.1025911569595337 -5.5665841102600098 -0.047238431870937347 0.75199288129806519 0.65747642517089844 89 2 2 0.94101637601852417
0.68274372816085815 1.1055741310119629 -5.5899868011474609 0.34283208847045898 0.57947146892547607 0.73937743902206421 98 4 5 0.91641449928283691
0.74266666173934937 1.1047418117523193 -5.5653934478759766 0.26336079835891724 0.58382630348205566 0.76797652244567871 105 5 7 0.94320768117904663
0.88856214284896851 1.1793007850646973 -5.9060306549072266 0.45244193077087402 0.45531904697418213 0.76679909229278564 80 2 2 0.98297798633575439
0.79428946971893311 1.1376663446426392 -5.6798520088195801 0.21105368435382843 0.65868920087814331 0.72220826148986816 86 1 2 0.92095214128494263
0.95734685659408569 1.1856632232666016 -5.9242596626281738 -0.41263377666473389 -0.031054176390171051 0.91036754846572876 65 4 3 0.98894345760345459
0.95448511838912964 1.1872377395629883 -5.9297223091125488 -0.30012881755828857 0.050449252128601074 0.95256364345550537 65 4 3 0.98683220148086548
0.9834868311882019 1.1889865398406982 -5.9172983169555664 -0.53866302967071533 -0.18115119636058807 0.82281619310379028 54 6 5 0.98916834592819214
1.0144580602645874 1.1810195446014404 -5.904029369354248 -0.65850299596786499 -0.42411011457443237 0.62169474363327026 52 6 5 0.98122316598892212
1.0347898006439209 1.1789118051528931 -5.8686084747314453 0.21965323388576508 0.61687028408050537 0.75579327344894409 42 7 6 0.95646494626998901
1.0370639562606812 1.200310230255127 -5.8911881446838379 0.2109370082616806 0.57741022109985352 0.788735032081604 45 7 7 0.96630245447158813
1.0714294910430908 1.197826623916626 -5.893312931060791 0.25622415542602539 0.48656785488128662 0.83522504568099976 77 6 7 0.97740387916564941
1.1012569665908813 1.1941655874252319 -5.8937883377075195 -0.069683030247688293 0.47739952802658081 0.87591886520385742 122 13 18 0.98067086935043335
1.1386520862579346 1.1952794790267944 -5.8943676948547363 -0.12591207027435303 0.3064379096031189 0.94352632761001587 155 21 30 0.98016542196273804
1.2009924650192261 1.2127077579498291 -5.8444018363952637 -0.62113094329833984 -0.42256391048431396 0.66002726554870605 81 20 14 0.98001646995544434
1.2151230573654175 1.1928068399429321 -5.7415566444396973 -0.85843849182128906 0.29624682664871216 0.41871374845504761 58 27 16 0.80859243869781494
1.2001478672027588 1.178744912147522 -5.5777864456176758 -0.93842864036560059 0.026039464399218559 0.34449052810668945 69 29 17 0.77089136838912964
1.1827620267868042 1.1618975400924683 -5.4667778015136719 -0.96881365776062012 -0.056072622537612915 0.24136251211166382 83 32 17 0.78738033771514893
1.1614804267883301 1.1382071971893311 -5.3810214996337891 -0.94365966320037842 -0.068859793245792389 0.32367363572120667 66 34 19 0.82209467887878418
1.1764531135559082 1.1329412460327148 -5.3574275970458984 -0.94457316398620605 -0.10056780278682709 0.31251826882362366 107 54 46 0.89281290769577026
1.1782854795455933 1.1274459362030029 -5.3381190299987793 -0.94550079107284546 -0.065150201320648193 0.31903558969497681 123 70 65 0.90672397613525391
1.1869651079177856 1.1263118982315063 -5.2075319290161133 -0.94674861431121826 -0.053158503025770187 0.31755509972572327 173 123 139 0.9109535813331604
1.187372088432312 1.1134669780731201 -5.1565217971801758 -0.82005542516708374 0.37316972017288208 0.43388181924819946 175 125 140 0.93532705307006836
1.2119631767272949 1.1032928228378296 -5.1150622367858887 -0.3577151894569397 0.55689465999603271 0.74960529804229736 162 114 129 0.98377835750579834
1.2536532878875732 1.104059100151062 -5.137263298034668 -0.0065540391951799393 0.71285176277160645 0.70128399133682251 146 99 111 0.99025213718414307
1.3847004175186157 1.1481395959854126 -5.2456517219543457 0.045860603451728821 0.67596554756164551 0.7355048656463623 186 131 142 0.97174578905105591
1.4455411434173584 1.1347323656082153 -5.1916117668151855 0.25116619467735291 0.53042519092559814 0.80966949462890625 173 120 125 0.95876151323318481
1.4992654323577881 1.1476994752883911 -5.2350730895996094 0.094482392072677612 0.49319005012512207 0.86477541923522949 102 52 53 0.9358295202255249
1.5798090696334839 1.178718090057373 -5.2962327003479004 0.093767985701560974 0.50823491811752319 0.85609859228134155 167 117 124 0.96985822916030884
1.6822500228881836 1.2059999704360962 -5.3471946716308594 -0.046988658607006073 0.19279816746711731 0.98011267185211182 119 69 63 0.95788270235061646
2.0527412891387939 1.3087552785873413 -5.814704418182373 -0.94163316488265991 -0.13296793401241302 0.30926775932312012 208 177 71 0.91333246231079102
2.0937871932983398 1.3177777528762817 -5.7699685096740723 -0.43496385216712952 -0.83346223831176758 0.34080347418785095 204 171 53 0.94489932060241699
2.1622371673583984 1.3282302618026733 -5.7762579917907715 -0.9680626392364502 -0.21338285505771637 0.13161471486091614 206 174 51 0.78279846906661987
2.1500711441040039 1.2886582612991333 -5.6636528968811035 -0.99523079395294189 0.0017092674970626831 0.097532466053962708 218 186 56 0.82843607664108276
2.1694715023040771 1.2912392616271973 -5.5806007385253906 -0.94371503591537476 -0.20953300595283508 0.25592541694641113 215 183 52 0.8937949538230896
2.1961956024169922 1.2956805229187012 -5.4969906806945801 -0.97153538465499878 0.0056607816368341446 0.23682664334774017 206 163 61 0.91294944286346436
2.2166495323181152 1.2798750400543213 -5.4240312576293945 -0.95234763622283936 -0.1529068797826767 0.26391956210136414 210 172 74 0.9225735068321228
2.2345836162567139 1.2727558612823486 -5.3386611938476562 -0.87222009897232056 -0.053950414061546326 0.48612901568412781 210 179 59 0.96273994445800781
-0.9990239143371582 0.71604454517364502 -4.5621299743652344 -0.15668857097625732 -0.83239328861236572 0.53157317638397217 100 84 96 0.90983092784881592
-0.98447799682617188 0.73875313997268677 -4.6008667945861816 -0.17784950137138367 -0.82930111885070801 0.52974438667297363 99 83 94 0.92899852991104126
-0.95681595802307129 0.72965109348297119 -4.6048145294189453 -0.11094672977924347 -0.71949553489685059 0.68557780981063843 106 84 99 0.97179627418518066
-0.87539494037628174 0.74072235822677612 -4.5285768508911133 -0.50952500104904175 0.61098277568817139 0.60587477684020996 184 138 156 0.99391132593154907
-0.85088652372360229 0.73457515239715576 -4.5234804153442383 -0.39186227321624756 0.5614159107208252 0.72887313365936279 212 159 175 0.9880671501159668
-0.82369226217269897 0.75315755605697632 -4.5365777015686035 -0.26295620203018188 0.60952258110046387 0.74788790941238403 206 154 170 0.98439085483551025
-0.79610472917556763 0.74923938512802124 -4.5202202796936035 0.38032627105712891 0.49237850308418274 0.78288912773132324 217 162 175 0.96068888902664185
-0.77265352010726929 0.74943244457244873 -4.5202808380126953 -0.10484950244426727 0.22394667565822601 0.96894502639770508 218 161 174 0.94030237197875977
-0.72867882251739502 0.75118935108184814 -4.520937442779541 0.16673041880130768 -0.3420727550983429 0.9247632622718811 209 150 163 0.96587783098220825
-0.67737293243408203 0.7531091570854187 -4.5005779266357422 -0.089854761958122253 0.55962949991226196 0.82385736703872681 208 149 161 0.98267436027526855
-0.65341037511825562 0.75311028957366943 -4.499901294708252 -0.029091862961649895 0.3386228084564209 0.9404723048210144 208 149 162 0.98424309492111206
-0.62996506690979004 0.75310248136520386 -4.4984297752380371 -0.041984055191278458 0.29316914081573486 0.95513826608657837 214 154 167 0.98519450426101685
-0.59540146589279175 0.76404875516891479 -4.4984250068664551 -0.032931413501501083 0.017323855310678482 0.99930739402770996 227 167 177 0.96944844722747803
-0.55641549825668335 0.76674908399581909 -4.5042819976806641 -0.14781709015369415 0.11871277540922165 0.98186421394348145 219 157 172 0.94966757297515869
-0.53275799751281738 0.76666826009750366 -4.5023198127746582 0.25855642557144165 -0.13877929747104645 0.95597535371780396 228 168 182 0.95685768127441406
-0.52121949195861816 0.78664952516555786 -4.5047340393066406 0.36174175143241882 0.19281096756458282 0.91212218999862671 217 163 177 0.98712766170501709
-0.49936783313751221 0.7734445333480835 -4.5114097595214844 0.46066746115684509 0.0038602165877819061 0.88756448030471802 228 174 188 0.98745089769363403
-0.47514268755912781 0.77299505472183228 -4.5031671524047852 0.45058917999267578 0.096664279699325562 0.88748258352279663 218 164 178 0.99029487371444702
-0.46612703800201416 0.79575508832931519 -4.5186514854431152 0.38632604479789734 0.67069387435913086 0.63318401575088501 183 137 153 0.99636542797088623
-0.44374763965606689 0.78889262676239014 -4.5263643264770508 0.45523273944854736 0.5760694146156311 0.67890143394470215 186 139 154 0.99698120355606079
-0.40394654870033264 0.81197422742843628 -4.5843658447265625 0.5007094144821167 0.58287471532821655 0.63995867967605591 73 38 43 0.99195963144302368
-0.35734325647354126 0.80620694160461426 -4.6150078773498535 0.69187581539154053 -0.39838573336601257 0.60216003656387329 38 15 15 0.98016130924224854
-0.35734325647354126 0.80620694160461426 -4.6150078773498535 0.69187581539154053 -0.39838573336601257 0.60216003656387329 38 15 15 0.98016130924224854
-0.33210834860801697 0.81644314527511597 -4.6395320892333984 0.67813253402709961 -0.53593844175338745 0.50289785861968994 35 11 10 0.92384076118469238
-0.18805122375488281 0.93349391222000122 -5.3037424087524414 0.78590124845504761 -0.010381057858467102 0.61826485395431519 28 9 9 0.89513498544692993
-0.14932626485824585 0.93705123662948608 -5.3893799781799316 0.72768592834472656 -0.2011745423078537 0.65574538707733154 36 13 13 0.66750055551528931
-0.11972744017839432 0.95687186717987061 -5.5149250030517578 0.78463602066040039 0.011641345918178558 0.61984729766845703 29 13 13 0.83481353521347046
0.01046344917267561 1.0034487247467041 -5.6554403305053711 -0.49392041563987732 -0.041613321751356125 0.86851078271865845 86 6 8 0.98094969987869263
0.03846219927072525 1.0049088001251221 -5.6475977897644043 -0.64643114805221558 -0.067446783185005188 0.75998526811599731 139 12 19 0.98106545209884644
0.063889294862747192 0.98924583196640015 -5.625885009765625 -0.66631293296813965 0.063120625913143158 0.74299579858779907 142 14 21 0.98084759712219238
0.11688613891601562 1.0127507448196411 -5.5797872543334961 -0.72682380676269531 -0.35019287467002869 0.59084016084671021 179 23 36 0.97449219226837158
0.14856027066707611 0.9991142749786377 -5.5301990509033203 -0.78476345539093018 0.029839187860488892 0.61907666921615601 165 17 28 0.98556172847747803
0.18959939479827881 0.99847358465194702 -5.483253002166748 -0.72219175100326538 0.14307335019111633 0.67673408985137939 147 11 19 0.98305565118789673
0.22992962598800659 1.0087977647781372 -5.4530057907104492 -0.56125485897064209 0.2243158370256424 0.79666513204574585 157 15 24 0.969307541847229
0.28295651078224182 1.005217432975769 -5.4232845306396484 -0.19005946815013885 0.42040371894836426 0.88720798492431641 181 25 41 0.97066795825958252
0.3182532787322998 1.0038473606109619 -5.4208354949951172 -0.21383391320705414 0.39463195204734802 0.89361101388931274 183 25 41 0.98101305961608887
0.34987539052963257 1.0017093420028687 -5.4016332626342773 0.15407377481460571 0.45304560661315918 0.87807226181030273 186 27 43 0.97894889116287231
0.38391503691673279 1.0045186281204224 -5.4179134368896484 0.32677513360977173 0.48308470845222473 0.81230980157852173 187 27 44 0.9517250657081604
0.40100830793380737 1.0305584669113159 -5.4252824783325195 0.19423030316829681 0.1504497230052948 0.96935003995895386 181 25 41 0.96096318960189819
0.62151843309402466 1.0537086725234985 -5.4905309677124023 0.20338219404220581 -0.12062235921621323 0.97164076566696167 121 9 14 0.98424768447875977
0.66216456890106201 1.063517689704895 -5.5120153427124023 0.22555737197399139 0.29589319229125977 0.92820852994918823 88 1 1 0.97877222299575806
0.72977215051651001 1.09044349193573 -5.583411693572998 0.12358482182025909 0.69687992334365845 0.706459641456604 115 7 10 0.97616684436798096
0.78805148601531982 1.0891722440719604 -5.5893821716308594 0.15159828960895538 0.6524055004119873 0.74255305528640747 119 7 11 0.97944313287734985
0.76674795150756836 1.0883818864822388 -5.5855779647827148 0.16865673661231995 0.65367680788040161 0.73774075508117676 121 8 12 0.98028349876403809
0.77528733015060425 1.0808649063110352 -5.5847182273864746 0.14873319864273071 0.59218209981918335 0.79195886850357056 128 9 14 0.98362815380096436
0.82570892572402954 1.0961160659790039 -5.5739278793334961 0.29331108927726746 -0.16045594215393066 0.94245553016662598 103 5 5 0.94661539793014526
0.97193300724029541 1.1606509685516357 -5.931006908416748 -0.43699994683265686 0.083435125648975372 0.8955833911895752 87 3 2 0.9730534553527832
1.0343425273895264 1.1404414176940918 -5.8379683494567871 0.43993163108825684 0.44742923974990845 0.77863162755966187 84 5 4 0.95777511596679688
1.0713976621627808 1.157066822052002 -5.8556876182556152 0.064254306256771088 0.49409806728363037 0.86702853441238403 51 5 5 0.96770942211151123
1.0751774311065674 1.1582974195480347 -5.8556489944458008 0.060479089617729187 0.58880430459976196 0.80600970983505249 53 5 5 0.97029566764831543
1.1128231287002563 1.1612769365310669 -5.8661088943481445 -0.013848248869180679 0.53394925594329834 0.84540307521820068 100 7 9 0.98163026571273804
1.151502251625061 1.1629937887191772 -5.8704190254211426 -0.10798889398574829 0.34698182344436646 0.93163400888442993 157 21 28 0.98158729076385498
1.1863231658935547 1.1603108644485474 -5.8526406288146973 -0.60668951272964478 0.37279626727104187 0.70210462808609009 166 24 35 0.97769588232040405
1.242354154586792 1.1749587059020996 -5.8192152976989746 -0.19882218539714813 -0.40776872634887695 0.89117580652236938 105 22 18 0.97302150726318359
1.1775684356689453 1.1128038167953491 -5.4069724082946777 -0.96907991170883179 -0.065820887684822083 0.23780599236488342 110 33 25 0.76970589160919189
1.1602911949157715 1.0840867757797241 -5.2966632843017578 -0.52894967794418335 0.64317023754119873 0.5536644458770752 88 42 25 0.90885579586029053
1.1837998628616333 1.1066470146179199 -5.2560873031616211 -0.82255101203918457 0.46986597776412964 0.32036823034286499 173 116 122 0.91001790761947632
1.1691440343856812 1.0901429653167725 -5.175358772277832 -0.71219849586486816 0.50781077146530151 0.48466640710830688 175 118 130 0.92016911506652832
1.1833121776580811 1.0785382986068726 -5.2015008926391602 -0.79937440156936646 0.40686213970184326 0.44211274385452271 173 115 127 0.93302196264266968
1.1944972276687622 1.0846922397613525 -5.1568841934204102 -0.66007262468338013 -0.34887507557868958 0.66527462005615234 178 126 140 0.90467262268066406
1.2211413383483887 1.0762703418731689 -5.0921139717102051 -0.43716064095497131 0.62308245897293091 0.64858216047286987 171 121 134 0.98801380395889282
1.264340877532959 1.0798261165618896 -5.1243224143981934 -0.084232240915298462 0.68615663051605225 0.72256070375442505 157 110 120 0.97815108299255371
1.3138251304626465 1.1013081073760986 -5.1692571640014648 -0.41746196150779724 0.12365147471427917 0.90024209022521973 112 63 68 0.92451322078704834
1.3429340124130249 1.1018917560577393 -5.1632676124572754 -0.023365268483757973 0.067116864025592804 0.99747151136398315 130 78 84 0.96154880523681641
1.3746650218963623 1.1102731227874756 -5.1761970520019531 0.36715602874755859 0.35620614886283875 0.85925173759460449 181 126 135 0.96983188390731812
1.4021538496017456 1.1217344999313354 -5.1579408645629883 0.16103515028953552 0.5948825478553772 0.78751659393310547 182 127 137 0.94268155097961426
1.5455945730209351 1.1489435434341431 -5.2522931098937988 0.21045218408107758 0.55931901931762695 0.80179303884506226 126 77 80 0.96178710460662842
1.701103687286377 1.1770780086517334 -5.3452391624450684 0.26266729831695557 0.32892221212387085 0.90709203481674194 133 79 69 0.93637359142303467
1.7456375360488892 1.1776043176651001 -5.3626952171325684 0.33692768216133118 0.39429497718811035 0.85499191284179688 191 142 111 0.86870825290679932
2.0509629249572754 1.2876800298690796 -5.8130702972412109 -0.7874036431312561 0.27325358986854553 0.55256491899490356 209 180 91 0.91941004991531372
2.073580265045166 1.2890510559082031 -5.7830944061279297 -0.83230054378509521 0.014204515144228935 0.5541425347328186 211 180 82 0.96324300765991211
2.177825927734375 1.2678544521331787 -5.5238742828369141 -0.951851487159729 -0.069144859910011292 0.2986598014831543 214 184 56 0.9544486403465271
2.2058577537536621 1.2533769607543945 -5.4539732933044434 -0.92555278539657593 -0.087946593761444092 0.36826276779174805 210 174 85 0.88343256711959839
2.2273211479187012 1.2572803497314453 -5.3841018676757812 -0.97123479843139648 -0.081595391035079956 0.22370773553848267 210 172 51 0.90110665559768677
2.2404458522796631 1.2374553680419922 -5.3469371795654297 -0.92530983686447144 -0.074097119271755219 0.37190225720405579 210 174 62 0.97722303867340088
-0.95529371500015259 0.71695977449417114 -4.6148834228515625 -0.22092783451080322 -0.17647546529769897 0.95919090509414673 129 99 115 0.97440046072006226
-0.93153834342956543 0.71639764308929443 -4.606165885925293 -0.26310238242149353 0.051317770034074783 0.96340209245681763 171 133 150 0.97523969411849976
-0.89913946390151978 0.72172129154205322 -4.548924446105957 -0.59568005800247192 0.52211672067642212 0.61037635803222656 187 142 157 0.99126464128494263
-0.86855560541152954 0.7225913405418396 -4.520958423614502 -0.49904227256774902 0.49749338626861572 0.70954704284667969 204 151 166 0.98775726556777954
-0.84182065725326538 0.71076500415802002 -4.5279641151428223 -0.26891720294952393 0.061890073120594025 0.96117275953292847 222 167 179 0.93262958526611328
-0.82407045364379883 0.72939467430114746 -4.5295233726501465 0.2425047904253006 0.34875652194023132 0.90529561042785645 219 164 177 0.90780407190322876
-0.8042331337928772 0.72843945026397705 -4.5152230262756348 0.32921642065048218 0.21527820825576782 0.91938656568527222 211 155 168 0.94943130016326904
-0.7811514139175415 0.72803467512130737 -4.5202813148498535 0.06249469518661499 -0.39030033349990845 0.91856414079666138 212 154 168 0.97374904155731201
-0.7527429461479187 0.72774636745452881 -4.4963889122009277 -0.283100426197052 0.58346986770629883 0.76119446754455566 204 146 160 0.97441965341567993
-0.72867751121520996 0.72661340236663818 -4.4993124008178711 -0.17719295620918274 0.74657738208770752 0.64126807451248169 194 134 147 0.97003805637359619
-0.70205903053283691 0.74000829458236694 -4.4942193031311035 -0.16181975603103638 0.61983734369277954 0.76786452531814575 195 137 151 0.97791403532028198
-0.65944570302963257 0.74303621053695679 -4.4956259727478027 0.0007070787250995636 0.61855810880661011 0.78573876619338989 193 134 148 0.97838205099105835
-0.66507405042648315 0.73350560665130615 -4.4882707595825195 0.024783013388514519 0.7709050178527832 0.63646769523620605 190 131 145 0.97316467761993408
-0.65254855155944824 0.73076969385147095 -4.4871373176574707 0.012506559491157532 0.70375657081604004 0.71033108234405518 184 126 142 0.97597730159759521
-0.63250762224197388 0.73057430982589722 -4.4879727363586426 0.040026433765888214 0.64849907159805298 0.76016241312026978 187 128 146 0.97875148057937622
-0.62939643859863281 0.74163186550140381 -4.4933147430419922 -0.03101775050163269 0.5887984037399292 0.80768454074859619 200 140 156 0.9809911847114563
-0.60446858406066895 0.7423819899559021 -4.4978389739990234 0.0098402407020330429 0.65602642297744751 0.75467383861541748 214 154 168 0.97649425268173218
-0.51576864719390869 0.74985235929489136 -4.5020074844360352 0.34393882751464844 -0.076089493930339813 0.93590408563613892 234 175 188 0.96451938152313232
-0.44947034120559692 0.7730715274810791 -4.5182533264160156 0.38094580173492432 0.38008058071136475 0.84286367893218994 212 160 173 0.99356728792190552
-0.44271641969680786 0.76970523595809937 -4.511354923248291 0.36491283774375916 0.52767419815063477 0.76707136631011963 213 161 174 0.99417155981063843
-0.41843423247337341 0.76980382204055786 -4.5267148017883301 0.38711300492286682 0.51516449451446533 0.76468884944915771 186 137 152 0.99652349948883057
-0.39480653405189514 0.77069395780563354 -4.5425543785095215 0.47781786322593689 0.60497689247131348 0.6369403600692749 163 118 134 0.99755024909973145
-0.31687670946121216 0.79123485088348389 -4.6527895927429199 0.78922796249389648 -0.21151211857795715 0.57652568817138672 33 10 10 0.95413678884506226
-0.29078888893127441 0.80577749013900757 -4.6804475784301758 0.30237510800361633 -0.41568511724472046 0.85777336359024048 52 7 7 0.7342599630355835
-0.0047182622365653515 0.97319746017456055 -5.6292800903320312 0.087824754416942596 0.71817988157272339 0.69029289484024048 22 6 6 0.97046864032745361
0.043066389858722687 0.96596056222915649 -5.628382682800293 -0.51656538248062134 0.54034894704818726 0.66421627998352051 63 6 7 0.97396284341812134
0.080328270792961121 0.96252435445785522 -5.5955352783203125 -0.54792594909667969 0.42207053303718567 0.72224211692810059 70 3 3 0.9760863184928894
0.10674714297056198 0.97598844766616821 -5.5785470008850098 -0.72493636608123779 0.22775255143642426 0.65007376670837402 117 6 10 0.98177248239517212
0.13864715397357941 0.95997172594070435 -5.5140995979309082 -0.74436891078948975 0.32535448670387268 0.58314603567123413 96 2 3 0.97400611639022827
0.16667634248733521 0.97224521636962891 -5.4921383857727051 -0.74937790632247925 0.3204520046710968 0.57943356037139893 113 4 6 0.97919297218322754
0.18267229199409485 0.96265530586242676 -5.4800019264221191 -0.75896525382995605 -0.21761380136013031 0.61369037628173828 111 4 6 0.95635753870010376
0.20676293969154358 0.97683984041213989 -5.4608302116394043 -0.6303141713142395 0.43609049916267395 0.6422843337059021 130 8 12 0.97468447685241699
0.23757660388946533 0.98028761148452759 -5.4347758293151855 -0.48900923132896423 0.33411312103271484 0.80575323104858398 156 16 25 0.97288060188293457
0.23688167333602905 0.98102164268493652 -5.4357500076293945 -0.50344526767730713 0.31250342726707458 0.80553358793258667 155 16 25 0.97234064340591431
0.26413094997406006 0.97824949026107788 -5.4104948043823242 -0.5122222900390625 0.3953404426574707 0.76245284080505371 173 21 34 0.9689972996711731
0.29666593670845032 0.97804141044616699 -5.4023637771606445 -0.19856801629066467 0.3089771568775177 0.93010950088500977 184 25 42 0.94571512937545776
0.33140835165977478 0.97580218315124512 -5.3949851989746094 0.50065892934799194 0.48243224620819092 0.71874868869781494 189 28 46 0.96522343158721924
0.41705265641212463 0.99274575710296631 -5.3977398872375488 -0.19709351658821106 0.15466935932636261 0.96810722351074219 186 27 44 0.97845721244812012
0.44412091374397278 1.0039070844650269 -5.3973956108093262 0.53213739395141602 0.20079867541790009 0.82250207662582397 178 47 67 0.97434049844741821
0.51379722356796265 1.0185408592224121 -5.4273204803466797 0.44923916459083557 -0.00071035325527191162 0.89341121912002563 169 32 49 0.97555261850357056
0.52717524766921997 0.99239099025726318 -5.4188542366027832 0.01604052260518074 -0.010593011975288391 0.99981522560119629 182 38 61 0.98394584655761719
0.54787677526473999 1.0205035209655762 -5.4565849304199219 0.59756481647491455 -0.28097718954086304 0.75097811222076416 167 21 33 0.98597776889801025
0.60746508836746216 1.0236375331878662 -5.466616153717041 0.1988721638917923 0.33170983195304871 0.92218130826950073 161 32 45 0.97810137271881104
0.64294689893722534 1.0255805253982544 -5.4850411415100098 0.14599072933197021 0.44614863395690918 0.88297116756439209 141 23 32 0.98399066925048828
0.66182106733322144 1.0295159816741943 -5.487968921661377 0.058172345161437988 0.51358115673065186 0.85606676340103149 121 10 13 0.98380261659622192
0.69706714153289795 1.0488283634185791 -5.519160270690918 0.13987194001674652 0.57394737005233765 0.80685830116271973 112 6 9 0.96847242116928101
0.75171136856079102 1.0557260513305664 -5.5605258941650391 0.28914070129394531 0.40854790806770325 0.86572867631912231 138 13 18 0.97866767644882202
0.78988021612167358 1.0561169385910034 -5.5752649307250977 0.15410009026527405 0.64167153835296631 0.75133931636810303 144 14 22 0.9835548996925354
0.79149061441421509 1.0539249181747437 -5.5829601287841797 0.068762138485908508 0.53381770849227905 0.84279912710189819 146 15 23 0.97729086875915527
0.92532914876937866 1.0749099254608154 -5.6382460594177246 0.26552578806877136 0.62041163444519043 0.73796039819717407 122 9 12 0.95326989889144897
1.0745937824249268 1.1197109222412109 -5.8243145942687988 0.050192862749099731 0.56037658452987671 0.82671558856964111 77 4 5 0.9504925012588501
1.115323543548584 1.1408137083053589 -5.8523473739624023 0.025603849440813065 0.55821943283081055 0.82929813861846924 80 5 5 0.97947919368743896
1.1113139390945435 1.1403110027313232 -5.8516836166381836 0.00020567886531352997 0.56106507778167725 0.82777160406112671 74 4 4 0.97890055179595947
1.154104471206665 1.1248050928115845 -5.833035945892334 -0.10175748914480209 0.6068846583366394 0.78824889659881592 137 15 20 0.98263430595397949
1.1500444412231445 1.125521183013916 -5.8347840309143066 -0.126639723777771 0.60030293464660645 0.78968268632888794 131 13 17 0.98292481899261475
1.1801515817642212 1.1521872282028198 -5.8574366569519043 -0.55743718147277832 0.40145659446716309 0.72670239210128784 168 24 35 0.97769647836685181
1.1920063495635986 1.1591427326202393 -5.8486819267272949 -0.59348422288894653 0.34969091415405273 0.72490882873535156 165 23 34 0.97793614864349365
1.2133785486221313 1.1501624584197998 -5.8273115158081055 -0.53856384754180908 0.51860272884368896 0.66407841444015503 160 23 31 0.97601836919784546
